# .PCD v0.7 - Point Cloud Data file format
VERSION 0.7
FIELDS x y z
SIZE 4 4 4
TYPE F F F
COUNT 1 1 1
WIDTH 1602
HEIGHT 1
VIEWPOINT 0 0 0 1 0 0 0
POINTS 1602
DATA ascii
195.79254 -46.13216 17.114864
233.18315 51.024498 -5.9899998
191.17029 38.942924 17.067684
67.117218 31.082933 -11.919826
168.55321 -70.41494 -6.1947589
108.13652 56.714222 3.6989839
230.98198 50.725937 -4.9921179
72.599998 62 -12.4
197.57687 -52.142269 9.6276121
167.94408 -67.784912 -5.677639
63.179462 -58.612316 -12.050026
166.6019 -67.998711 -6.2860389
106.603 -59.720043 1.928144
166.03636 -68.800224 -6.0592451
93.245003 -12.560296 3.8682311
136.94249 19.677675 3.1554811
192.75931 69.886086 -9.8597097
185.14307 47.89579 5.3881779
229.14421 52.331562 -5.9899998
145.5558 -69.695068 -7.2700071
103.32806 21.650587 -12.782927
147.07487 -70.249573 -7.2699838
208.2636 -7.0772948 19.916794
238.64999 -33.829998 11.059999
81.092361 40.812675 -11.420162
126.23064 70.026665 -7.27
205.83952 45.228794 19.245502
69.5 37.829998 -0.46000001
232.53101 -49.723953 -4.8293929
146.62558 -70.386353 -5.159163
160 -1.6578259 3.5522859
104.27697 20.901964 -12.400001
87.173904 -57.57795 -1.7442631
79.105576 67.635193 -6.5100579
65.239952 54.736179 -11.919878
145.28586 -70.10907 -5.1247711
146.69215 -70.851044 -7.2635512
172.95631 63.889042 -5.601171
136.13776 -20.802687 -12.884248
81.3489 39.7859 -11.386896
211.78624 54.780289 -5.7000489
66.92646 -63.16972 -12.05104
213.84738 -33.200001 16.860001
147.64098 -70.402275 -5.140018
240.2 33.829998 -1.6900001
65.603432 58.021839 -12.396816
61.111633 -53.168571 -5.1693358
160.43799 63.405609 -5.2115231
147.94089 -68.556709 -7.279346
205.31601 54.635937 -5.2137899
229.59706 -44.928272 14.568414
62.297596 32.054928 -5.2825971
116.15113 -56.105568 3.829932
147.49791 -67.998138 -6.1522932
179.86594 -42.519028 3.116667
146.0016 -67.797173 -5.167686
145.12143 -68.793747 -6.0939431
134.37286 -20.95639 4.720614
125.03513 -68.18187 -7.2699981
196.99794 71.838821 -12.397949
123.80805 -69.409744 -7.2700062
210.27324 52.52 -5.1999998
133.59726 -21.654985 -10.88
197.0381 -61.357216 -5.9899998
92.620445 -39.889858 3.7147291
208.09599 53.452583 -12.05
225.26321 48.962082 11.559505
67.107201 44.565857 -9.3166447
129.45457 63.007946 -7.2700052
217.40497 -46.147556 16.455746
237.14911 46.337551 -5.657526
201.49814 10.484163 18.879164
135.13739 -19.796463 0.98289299
150.78003 -63.179878 -5.1199999
134.81801 -19.288929 -10.88
167.53418 -68.185989 -7.27
133.60704 -21.798923 1.610391
148.04826 -61.093697 -9.3599977
187.76198 27.886366 13.434427
79.655746 40.599758 -12.598267
64.468323 16.811808 -4.9860678
98.124626 -22.371037 3.759903
102.36067 -21.268381 2.3299999
85.785873 2.2981851 3.8299999
123.85775 69.004982 -7.27
61.926521 -17.037289 -9.0475073
101.36949 22.839714 3.5321119
132.67152 20.884119 4.7322698
61.354805 42.519798 -5.640007
99.922287 20.838991 1.544521
80.161026 -22.724615 -3.462302
188.24695 27.184549 13.805923
195.53966 -53.051945 8.835043
150.87964 60.005466 -9.0156879
203.13655 49.358978 12.153273
166.69286 62.986366 -5.6401882
100.39008 19.280437 -10.88
128.59009 62.657169 -7.6199999
100.22863 -17.070049 -12.92399
82.580002 -58.799999 -10.705
182.57083 -49.900005 5.4000568
101.33363 -19.335552 4.7741642
59.038132 -12.402599 -7.248395
101.4 -67.199997 -9.3599997
101.34394 -21.968668 3.0476699
130.7682 -19.267881 2.2471499
237.86244 -37.880711 -5.6399999
101.00813 -71.386681 -9.0100002
100.7408 -19.079887 4.2486911
128.45203 62.287254 -5.2125831
80.758469 68.983177 -7.2700019
92.38739 -22.379961 3.759686
81.209152 33.556927 -11.632173
169.91588 -59.141495 2.4925239
196.97394 64.009491 -12.101734
80.961487 67.533348 -9.3599997
137.12733 17.951729 3.8299999
100.93906 19.467308 4.724381
215 -42.08651 19.799999
59.204929 -16.846479 -9.4791164
134.97333 67.96701 -7.27
88.270836 -18.717093 1.2980829
68.8983 -46.457733 -3.3756521
132.39462 19.994007 0.941827
135.31566 -20.04241 1.981369
100.74424 -21.358532 4.237381
101.97282 -20.956425 4.7157722
101.59171 -21.136223 4.7291112
83.018723 34.18 -12.436789
181.08138 -14.73503 4.0434551
240.55 20.83 12.4
100.53797 -68.545891 -7.27
136.91145 21.853558 3.5302529
92.620445 -39.877602 3.783648
98.599335 64.512634 -5.187366
197 64 -12.05
107.3708 -62.100342 -5.6333981
206.49533 -54.941048 -5.2440028
100.12449 20.84775 1.6324691
102.81321 20.329798 0.94024402
232.24214 -9.1636114 12.296335
237.9959 38.923344 -5.606988
60.25 -3.3 -5.1199999
192.10599 -27.162804 17.086285
133.79204 18.261515 1.933113
74.113335 63.497776 -5.7084088
102.41184 -19.251747 3.9740169
61.450005 -11.316072 -12.699999
81.064026 33.677895 -11.420121
134.64923 20.547993 -10.871744
87.267967 49.900002 -1.1712821
228.30948 -16.066467 16.757545
67.111931 54.102856 -11.41425
205.18817 52.868614 -4.7271318
238.64999 33.829998 7.2600002
100.17149 -19.578749 -10.878009
105.04525 17.951815 3.8299999
133.20055 21.515171 -10.88
210.18521 -52.53688 -12.05
151.3356 -63.655758 -5.7295308
132.40056 -20.094906 0.98450202
203.49786 -58.538864 -5.63977
90.993248 -37.769253 2.7114
66.881981 -19.515306 -4.5167799
198.18976 63.902691 -5.3209891
101.94828 -21.53816 -10.88
85.482651 57.062252 -2.7335351
167.31236 -68.247849 -5.1582952
235.80402 35.829998 -12.4
238.72928 33.829998 -12.05
65.517952 30.517624 -12.399981
227.71748 52.518852 -5.199995
229.60794 53.898338 -12.4
64.159187 -30.783443 -7.9022779
81.166504 45.544121 -3.2700009
210.19339 12.723359 18.271288
101.20599 -21.798727 1.615752
166.6693 -59.955757 1.177213
231.7666 40.647659 12.590497
203.5 -41.489998 17.799999
124.04398 -70.601379 -7.3008981
243.84016 28.970581 12.751118
199.10663 7.833549 19.079975
102.07531 -21.37005 4.2984171
60.553425 0.27783701 -5.1199951
146.99545 70.287605 -5.140687
104.84254 -56.701241 3.7755661
228.10001 52.400002 -12.05
82.76384 6.961978 3.3635869
70.366997 61.618671 -5.1199989
243.12323 30.097721 12.693727
135.08064 -20.837521 1.482475
192.0143 64.796471 -12.386215
196.39944 62.349998 -5.9899998
231.5208 -33.007282 12.288897
235.54709 36.400002 -4.5
243.07988 27.259928 12.749953
198.76039 18.002808 17.799128
181.52103 31.370375 3.8461609
196.314 13.009602 17.660408
180.63057 12.813219 3.98
81.986664 -61.39994 -9.0100002
133.63052 -21.799864 -10.88
145.1781 69.911697 -5.1290469
241.92067 -11.058497 12.742407
68.110497 -62.107548 -5.682622
195.48767 67.494774 -9.8596354
91.160995 -49.899872 3.7065139
61.870899 -11.960252 -7.477035
101.24876 -70.503845 -7.6200051
188.77631 -11.635754 15.131594
211.48825 -33.011536 17.359671
168.69893 -68.325157 -7.2756152
68.116028 57.038567 -11.608624
243.57942 10.586303 12.763783
104.53667 21.421276 -12.698753
196.8726 63.650002 -7.6199999
242.44 8.6867189 12.731397
196.27206 62 -5.6399999
161.3 62.549999 -7.27
211.94736 -44.483761 17.236231
188.49745 58.697769 1.043937
238.64999 33.829998 11.059999
194.14246 28.053564 17.73
102.66518 20.849453 -10.88
166.57114 -60.013165 0.83371401
62.599998 55 -12.05
100.56947 22.736137 -10.906038
160.77321 63.067879 -7.27
232.64809 -9.1300564 10.181297
132.47473 -18.201984 -12.820905
221.29274 -47.077099 15.837605
169.50771 -68.632301 -9.0099983
241.77089 10.194042 15.509876
188.72527 70.800278 -5.912107
104.79713 60.298065 0.58169597
234.22836 -49.430237 -5.2001948
191.8923 47.594994 14.618393
82.50737 -61.394882 -11.054999
187.85072 -68.564468 -5.14013
61.359016 -1.400843 -5.1199999
104.69479 -20.747936 3.0974879
212.64001 -54.700001 -5.6999998
87.399429 47.068676 -0.89560699
100.57612 -19.863436 4.7316022
145.66412 -68.748734 -7.2700009
69.109047 56.92902 -11.419772
237.11977 37.706944 -5.2796769
88.578217 55.5765 1.817548
93.245003 -15.066777 3.9800031
64.952209 63.646427 -5.1216788
221.80595 -53.587589 -5.2700109
231.66493 -50.240067 -4.6513329
242.0733 30.080637 12.750006
102.64695 -70.279083 -6.510005
79.472702 47.319767 -11.920022
197 -71.900002 -9.3599997
171.1301 59.109192 2.4856961
83.742203 -1.635192 3.61728
125.02371 70.88829 -7.281744
196.92931 63.337887 -5.2576818
102.41801 21.211071 -10.88
71.504921 52.79755 -11.919978
243.95219 -10.167198 12.869588
135.11746 -17.255054 -12.699137
160.73111 -63.681492 -5.7032328
229.756 -52.24268 -12.051244
206.50731 35.380943 17.431173
60.748428 -31.348705 -5.1847939
75.5 5.7255092 6.4000001
244.28745 -29.179468 12.767886
87.336746 -45.749298 -1.271997
100.55313 -23.313242 -12.967277
237.75 -34.829998 -10.059999
82.580002 58.799999 -10.705
211.48682 33.007366 17.359818
205.82098 55.991955 -12.7
227.31438 -24.806725 16.722809
133.79109 21.915249 3.1678741
243.3734 -8.7477064 15.512227
193.7 -62.549999 -5.9899998
100.63572 -19.05904 2.3300769
185.14044 47.614819 5.4220982
239.74338 33.829998 14.460001
125.26982 -67.786293 -7.2657051
138.76662 62.358379 -5.1769199
72.599998 61.400002 -11.055
133.88268 -18.837297 2.331028
243.07988 -11.240072 12.749954
194.44312 49.02533 17.653036
62.249847 -10.779343 -8.9233112
237.75111 15.913317 -5.159297
79.513847 68.264771 -7.2699709
244.12643 -10.612385 12.732517
62.599998 -16.014999 -10.301621
206.76465 -53.277458 -12.4
244.29007 -9.4700594 12.750022
59.745102 -11.33665 -9.5102863
61.444466 -54.124619 -5.9896841
146.60001 -70.800003 -6.5100002
85.963066 -60.422398 -5.269628
90.392601 61.100624 -4.8099999
243.6626 -8.4663277 12.76362
60.500034 43.097729 -5.2702761
243.85533 -28.546366 12.760419
243.44254 -29.647675 12.757341
183.32855 63.900005 -5.6399789
238.93135 33.829998 -12.4
68.662407 33.207344 -11.420006
138.30522 -56.67083 3.7782869
240.60001 30.829998 6.4000001
98.77301 -20.099745 3.5133641
149.827 -63.005695 -5.1199999
167.07602 -67.673462 -6.1599989
205.14825 -45.342739 17.023176
227.61064 53.658112 -5.6399999
194.84843 -62 -12.05
133.60704 18.701078 1.610391
240.55 -33.829998 -2.25
212.08054 52.75 -5.9899998
67 64.849998 -6.1599998
65.75782 -22.554443 -4.7266932
202.27809 -60.459133 -5.7041392
63.270592 -56.064701 -5.1199541
203.98979 -49.102871 12.177026
103.2912 -19.63806 1.27416
199.00439 -50.610073 12.399201
183.57571 -42.944901 4.514946
101.24423 -17.502651 -12.7
241.52084 -9.0962334 12.797644
191.60001 -64.050003 -9.3599997
166.64551 60.068291 0.63014501
87.173027 52.900002 -1.382024
213.3492 19.19375 16.860546
81.089149 48.033405 -11.419998
192.29979 71.550514 -9.3676853
138 48.390759 3.4910159
59.123001 -15.424939 -7.246542
118.61434 -62.9991 -5.6400099
133.4119 17.643064 -11.185501
241.4299 28.101242 15.50089
102 -49.900002 2.8299999
189.35507 -58.442696 0.60663402
102 44.400002 2.8299999
244.0675 -27.770208 15.543391
241.6869 -9.3126888 12.749999
132.41226 -20.434965 -10.88
74 -64.849998 -6.1599998
206.86644 8.236515 18.808781
100.69911 19.685419 -10.780001
202.58185 -49.950062 16.065018
179.84544 -31.602406 3.783648
237.55956 -15.589434 -5.2928329
81.529373 67.953659 -9.0099754
134.69705 20.177071 -10.780001
231.5159 -35.385307 12.311149
236.44878 45.050411 -5.9903111
237.3 44.900002 -12.7
210.60065 52.102554 -12.400002
237.09506 -21.996536 -5.6398339
166.65263 60.170696 0.50960398
197.15306 43.97694 17.715864
68.468315 64.330002 -5.7099991
206.13847 54.357365 -5.9922051
104.42517 21.163235 3.0409379
172.75917 63.568604 -5.6729941
179.84543 39.392651 3.5803111
130.73895 19.945518 -12.40001
193.32001 66.046043 -10.129075
230.79843 52.086376 -5.2272601
233.78488 -50.534317 -12.050102
61.98428 -10.82415 -9.4623604
132.99673 19.804823 -10.778747
133.84186 -17.092064 3.759999
204.74921 6.306592 19.079231
118.52963 63.900009 -5.6399732
184.04048 -48.336052 4.376616
227.89526 53.925648 -5.9900022
235.0282 -48.400002 -12.05
107.8501 60.32 -11.055
188.99248 -68.267822 -7.269999
134.58981 -20.681484 4.73
69.650002 -63.200001 -12.4
90.012589 47.414314 2.5805581
78.973328 -67.969353 -7.27
61.269032 -20.073542 -5.2000022
192.77708 69.561005 -10.182302
137.08147 -45.109406 2.760004
235.1441 -48.206017 -5.6507211
196.32751 13.132503 17.730555
134.30859 -19.486303 -10.869004
68.64994 44.682304 -9.2901525
62.205349 60.458782 -5.3219528
230.52 52.413372 -12.050606
221 -14.3 21.299999
88.667953 61.920002 -5.1999998
194.94975 71.158455 -9.433672
145.43848 68.880882 -7.2699852
134.2 67.199997 -9.0100002
238.10371 45.110428 -5.6415138
80.256554 -68.329193 -7.6199999
78.371605 59.251541 -12.025445
236.20354 37.896694 -5.3131838
63.200001 -64 -7.6199999
205.43956 43.050392 17.666815
192.70111 -63.001942 -5.2895589
194.12891 67.668793 -10.117225
206.13789 54.379639 -12.05
183.81833 -62.511665 -5.6679072
98.599335 -64.45607 -5.2439342
90.860977 49.899208 3.646883
146.51552 -70.859406 -5.1269732
85.008675 -7.0208712 3.7599859
185.16695 -47.401436 5.8380809
241.23285 -28.679817 15.501199
231.61368 35.867023 13.277316
235.30286 47.917225 -5.9825082
231.16635 27.899078 14.218863
81.089066 48.780674 -11.595553
189.62306 68.313255 -7.2700019
235.44812 48.395924 -12.05001
131.79059 18.14109 -12.699997
101.43365 22.189426 1.936057
228.40005 -54.550064 -5.1200252
211.49522 35.371189 17.429441
132.9364 -20.503386 -10.780001
235.08661 51.724312 -5.9897461
102.18983 19.818516 4.73
188.18803 -47.089973 10.784123
86.169937 55.739136 -2.4256549
92.410843 14.397676 3.8450119
134.47359 -19.02269 2.3299999
187.20648 -70.29969 -9.0099993
220.70885 -0.211952 17.160276
197 64 -5.9899998
100.6784 -19.699564 -10.791265
92.906258 -42.470184 3.0657351
99.209877 -22.278366 -12.400001
184.17435 -32.739681 5.5566311
62.249718 -16.900949 -6.0901632
228.34494 51.519413 -4.4636302
234.08391 5.7743158 0.66954702
139.75586 63.900188 -5.2700262
211.46796 -53.9002 -12.4
232.10001 -51.328205 -5.9899998
104.62849 -19.388052 3.423631
190.73711 -45.831356 14.934899
63.200001 -66.400002 -9.0100002
232.27499 -51.63131 -5.9899998
204.69731 -45.38921 16.849451
128.59454 -63.616673 -5.4139471
212.08054 54.400002 -12.05
80.795761 34.209637 -11.420551
194.50002 -68.191147 -9.4231701
134.35939 19.075188 3.8676851
235.97916 45.872353 -5.9900699
80.860855 -68.180832 -5.0503669
235.89999 35.829998 -5.9899998
98.635101 19.938471 -12.7
193.8 -66.699997 -9.0100002
242.61305 -27.228302 15.51591
78.138161 35.260612 -11.419964
128.89999 -62.549999 -5.9899998
209.39388 -53.064026 -5.9899998
71.599998 64 -9.3599997
211.47105 -53.935501 -12.7
185.28709 7.75 7.7832289
182.89999 62.549999 -5.6399999
124.61937 -70.438766 -7.6199989
169.11621 69.477486 -5.1266189
100.80102 22.60132 -12.685619
64.786057 34.18 -11.167686
222.63602 53.448288 -5.6400051
83.100533 34.115707 -12.094418
130.97868 21.305258 1.930009
237.99731 45.286995 -5.650826
134.6636 20.503386 4.73
227.9593 16.144142 16.877815
84.35009 -1.578686 3.53473
172.58012 62.545433 -5.2859101
189.2 71.400002 -9.0100002
193.90895 -47.02573 16.248798
231.88527 53.742867 -5.6474071
234.72452 -49.483158 -5.9899998
108.77257 60.111458 0.479608
91.099319 -18.632496 3.529999
102.84171 19.494736 2.0641811
236.10001 35.829998 -5.9899998
82.761627 -6.437676 3.2882681
181.21666 -58.367931 3.033565
231.51794 52.768139 -5.6400299
98.521469 20.81793 3.0241041
222.32115 52.498222 -5.2636852
233.78064 52.629841 -12.4
211.09506 -42.08651 17.73
182.48503 63.51873 -5.272964
132.79007 19.280437 -10.88
131.25002 19.796459 3.3964019
134.80635 -19.273615 1.778206
216.33896 -46.727577 15.969402
87.700089 -52.900002 5.2251091
231.54781 53.839142 -12.399997
196.8726 -63.650002 -12.05
134.39847 -21.515636 2.3299999
190.19283 56.110889 3.0880549
172.68994 -62.347961 -5.749577
102.93593 -20.847252 1.285923
181.23244 -60.218445 0.276687
138.84076 -60.084938 0.82245499
166.86708 -70.772583 -5.094193
101.38277 -22.235031 1.929368
107 -49.900002 5.8299999
64.597153 55.636196 -12.419205
180.74809 15.593562 3.76
60.582386 0.60972899 -5.039721
67.175659 -62.874981 -12.4
243.44823 29.64356 15.503647
66.778152 -68.960388 -9.0105085
100.02357 -19.994198 -10.88
102.53154 22.647713 -10.908637
242.61319 30.271692 15.515949
78.886566 9.4489994 0.59491199
131.18816 -20.566635 -12.699992
235.65974 -47.064442 -5.9899998
150.92537 63.900005 -5.6399741
211.92668 11.501383 18.559496
139.90108 63.054859 -5.2000022
126.36877 -68.74897 -7.2706099
96.5 63.450001 -5.9899998
84.742081 56.769024 -2.869988
85.965927 -57.202244 -2.619977
61.516479 54.405895 -5.989995
89.934509 41.302166 2.9737289
107 -49.900002 6.9000001
102.96317 -69.111969 -7.351275
93.245003 -12.850093 3.9204991
189.43729 -40.618336 15.819448
237.99963 -44.96891 -5.6392899
102.42119 -70.463234 -7.2823572
243.84061 -28.970198 15.49925
202.10931 -58.412861 -5.989953
210.37946 52.207436 -12.05
212.08054 52.400002 -5.9899998
104.31975 56.201168 3.759059
103.04203 -17.442766 -12.945093
61.849998 21 -5.9899998
101.83768 21.595715 -10.879691
95.772186 62.107807 -5.6186199
82.580002 -58.799999 -9.3599997
72.004883 45.470474 -3.5126491
196.39944 -62.349998 -12.05
98.174187 -64.333076 -5.1199479
60.730812 42.426163 -5.195734
205.20622 54.118774 -12.049475
123.47994 -63.108757 -5.6400099
222.54318 53.325672 -5.989953
196.04352 61.935017 -5.6399412
193.6432 62.51236 -7.6199999
62.099998 7.0753198 -12.7
98.996529 -19.781263 -12.88398
233.55763 -49.997799 -5.6399999
101.80667 -68.013962 -5.0855942
196.39944 -62.349998 -5.9899998
60.248451 57.01466 -5.2000279
166.64975 62.955391 -5.990222
131.34447 19.164566 -11.816255
117.2597 -63.300007 -5.1585269
236.64958 6.391675 -5.1199808
209.70279 52.637928 -12.05
230.86925 32.325207 14.665654
100.49162 -20.378149 4.722044
98.310265 -21.541285 -13.029911
182.91379 62.102425 -5.2829671
202.77524 -37.631535 18.130013
166.81467 -58.702824 2.7703199
234.50276 52.11483 -12.050004
196.27206 -62 -5.6399999
66.289482 49.239044 -11.527701
205.80913 44.880985 17.176004
97.484375 63.003082 -5.2797279
86.155327 21.425169 -2.7274561
140.10612 62.247375 -5.2660031
184.89899 -61.165527 -5.0905828
88.898125 43.185982 2.14221
137.09035 -19.393682 1.846113
147.47084 70.153442 -7.6200252
211.65228 19.871363 17.728189
235.78513 45.722836 -12.045423
234.04231 49.774822 -12.028669
207.13812 -54.904938 -12.4
63.505882 -5.680974 -5.2000461
78.879623 -68.632217 -7.26999
59.287071 -10.849542 -8.9143362
102.15203 17.485209 -12.7
61.715073 -48.506172 -5.6571479
199.50331 -14.11123 17.87882
179.79239 43.489975 2.76
196.20255 71.833519 -12.391548
151.50758 -59.359245 -9.0100002
61.450012 -0.35938799 -12.7
206.83667 -49.000328 11.825041
236.03157 -45.44421 -5.9899998
191.60001 -64 -12.4
146.6978 60.867031 -9.3599987
235.61469 48.077934 -5.9960918
63.799332 -16.290974 -5.2699399
131.00967 19.185631 3.3800731
81.31147 54.607708 -11.603595
107.8501 -60.32 -11.055
101.48266 21.662703 2.3301589
60.099998 -3.385757 -5.6999979
215 -49.900002 15.266477
194.28909 68.164612 -9.8653307
99.826424 69.56485 -5.1471548
197 -64 -12.4
62.127102 -17.607439 -6.7689638
205.79712 46.395977 18.715881
133.93994 -17.793135 -11.198306
168.87646 -68.386726 -6.5100069
206.5 33.489998 19.799999
167.1994 -60.842403 -3.2619791
89.413345 -31.917797 2.6790941
242.14267 27.882914 15.478439
147.12927 70.208992 -7.2699952
135.06909 56.653015 3.7139709
213.59372 16.121389 17.229849
133.89639 21.144825 4.73
243.62311 -27.947952 15.487043
66.745026 48.136597 -11.92
190.40945 69.390961 -7.6196289
67 64.849998 -5.4099998
189.2 67.199997 -9.0100002
102.20753 22.968655 -12.4
82.741272 -6.4914541 3.357235
61.75581 21.745216 -5.262527
101.4 -70.800003 -6.1599998
196.49806 -64.502007 -9.8777542
188.21974 68.915703 -7.269999
241.46933 10.54078 12.734005
235.8 -35.829998 -12.05
231.42711 53.853554 -5.989748
100.3829 -69.614746 -7.27
186.5463 60.643593 -4.5337281
133.48846 -23.0149 -12.7
236.3455 -48.193787 -5.6400719
132.33212 -20.324821 3.3935349
212.76503 -53.345657 -5.2840571
70.821426 60.593781 -5.27
196.01292 9.3215199 18.579493
184.55238 33.346619 6.1233292
234.15479 -9.1237965 0.671673
233.07115 50.661839 -12.393272
180.29958 44.400002 4.3300929
132.99886 -23.390757 -12.919832
134.63316 19.108376 2.4246781
101.182 -67.654846 -6.159997
101.49434 -23.447678 3.8299861
230.45107 7.9950972 15.400724
192.19527 56.27877 2.166873
161.36845 63.460442 -7.6199999
182.23077 -47.277924 3.1299059
194.14246 -28.053564 17.73
99.9011 -18.438324 -12.868783
203.93652 -0.74561101 19.081541
195.77144 7.8167739 18.87936
88.766037 -43.315029 1.984226
59.529236 -11.336452 -8.2815704
242.51738 11.26051 12.748004
205.4995 -46.550915 16.058203
206.65164 55.905571 -12.399994
232.07333 51.340961 -5.9815989
185.14903 -44.400002 10.421256
234.89027 -51.20084 -12.4
133.52028 21.480289 4.089643
62.004223 -10.901003 -6.1216741
197.04004 64.400002 -5.7100048
191.78497 -44.577705 18.882994
210.78326 -52.201305 -5.9896722
241.51758 -10.092822 12.73584
91.649605 42.742409 2.878557
229.10406 -45.892376 13.968843
104.22131 -21.305267 1.93001
228.10001 -52.75 -12.05
98.096817 61.920124 -5.1999922
192.71136 -64.070595 -5.0384631
210.30838 51.669895 -4.7481151
171.15582 -59.480915 1.958593
129.53337 -62.108551 -5.303237
100.06198 -20.265223 3.859272
65.240875 54.823227 -11.420699
210.77982 -52.82383 -5.9881392
235.89716 -45.20406 -5.6400881
79.041519 67.925392 -5.9496679
79.42495 49.520943 -12.543946
79.423409 38.659874 -12.157427
235.28513 -48.723564 -12.04827
60.143932 -3.3 -5.2439342
133.59709 18.85342 2.138622
62.250443 6.5113058 -7.302752
82.928146 34.18 -11.51108
236.45 -44.400002 -12.05
187.59216 70.761711 -9.3600187
182.63971 -56.755066 3.7618549
222.62579 -53.391068 -5.9897709
135.36015 -21.98094 -11.190105
236.10001 -34.829998 -12.4
75.5 -37.829998 -4.46
132.90518 20.346386 -10.780001
237.37943 47.630753 -5.2487702
217.3074 8.5873108 18.22451
59.00621 -12.629656 -10.530435
229.12512 54.779503 -5.70187
60.099998 -55.299999 -5.3499999
88.64238 48.019745 1.734163
243.7095 9.1167402 12.760256
197.47522 6.310514 19.076391
243.88322 9.5829754 15.534252
213.88445 -19.779722 17.191772
177.42287 -63.474552 -5.2998581
187.67346 69.091431 -6.5100002
62.223824 -17.531715 -10.786418
62.872486 60.769886 -5.707027
104.60784 -19.540672 -12.886086
213.35239 19.183271 16.931049
233.68086 -52.753788 -5.6399999
151.41621 -59.571587 -11.054933
182.04872 -31.518768 3.985605
166.55794 68.629745 -5.092885
124.9 67.199997 -9.0100002
101.39409 21.946836 3.022136
209.62187 -54.662476 -5.9899998
101.19721 18.851698 1.616171
75.5 -20.412226 -0.459988
80.800003 46.470406 -11.12
170.94098 60.702541 -2.4687409
64.91523 -48.176598 -5.1596351
168.65779 69.394241 -5.1844611
180.881 -12.579468 3.8009081
237.12024 -32.963936 -5.988554
238.10034 -44.926388 -5.9906802
206.50975 56.022156 -12.050006
62.170921 -54.356285 -5.331778
151.31216 -62.74197 -5.2472219
136.9232 21.182077 1.797069
237.75 34.829998 -10.059999
85.358437 20.564438 -3.197052
167.5 -70.800003 -6.5100002
61.280426 -20.171486 -5.1199999
229.12358 36.267105 16.263317
193.17667 -62.965805 -5.639997
136.98166 22.290794 3.723666
206.85202 -53.989178 -5.9899998
196.20602 64.799232 -12.382321
91.633087 60.832623 -9.3600264
133.01018 -19.818516 -10.780001
235.89053 45.649982 -5.9908071
120.1701 59.144917 -9.3599997
205.52908 43.918808 19.611366
206.75604 -55.825996 -5.9899602
138.21014 -58.575577 2.8873341
78.189651 57.39455 -11.64653
60.5 -19.612186 -5.27
67.853546 58.078053 -12.068393
104.57983 22.290745 3.723649
99.345818 22.467146 -12.400006
212.08054 52.099998 -12.05
82.580002 58.490192 -9.1599998
98.949379 19.645399 -12.895892
140.54518 62.704521 -5.165175
210.96219 14.193756 17.660337
236.44925 45.055096 -12.049945
133.1427 -21.485924 -10.880023
238.10001 -34.829998 -12.05
132.53853 -20.8571 -10.882118
233.84676 -27.193365 0.32358101
80.303284 -67.84053 -7.2787251
77.811188 33.266281 -11.929306
185.33469 -27.202791 7.8953261
100.01577 -19.982536 1.007784
206.62186 55.918034 -5.9899821
188.88913 -61.006321 -5.27
164.78317 -63.477329 -5.2959442
134.47359 21.47731 2.3299999
65.257607 33.190723 -11.919855
228.10001 54.400002 -5.6399999
241.8114 29.352823 15.539669
241.54187 -8.8699656 15.492684
201.90329 57.459267 -5.7124462
138 46.955193 4.37988
227.31143 -51.543941 -4.6820531
66.152351 55.23708 -11.655935
244.21635 9.0207958 12.749969
235.03592 -51.53241 -5.6219521
243.21815 -8.7062778 12.745731
101.50283 -22.26026 3.4800889
185.5177 -6.801321 8.3264198
241.71037 -29.751543 12.757183
212.77226 -6.1586428 20.139463
230.40517 51.703339 -5.2692752
166.49542 68.87616 -7.27001
237.06345 -45.83894 -5.3116469
68.607681 62.099182 -5.6369419
190.3463 46.731705 13.932771
138 -47.772446 4.863719
59.012642 -12.20958 -10.267179
77.372482 58.618263 -11.12021
102.82446 -19.58923 1.965449
236.46236 -50.082882 -12.400053
238.10001 -33.829998 -9.71
63.27 0.60000002 -5.1199999
245.2 -18.200001 14.460001
231.00102 -54.332478 -5.270896
78.222984 68.765739 -7.281034
188.62837 11.495057 14.965182
235.79871 -45.287388 -12.4
192.10411 -61.920349 -5.1999998
236.64999 -5.5 -5.6399999
64.014465 8.0112772 -5.2464662
237.6284 -47.689056 -12.049665
228.87167 54.399395 -12.400041
234.00768 -47.789909 -4.3482132
88.557793 -60.906101 -4.9926872
97.024269 62.995094 -5.6400599
65.040001 34.18 -11.12
228.10001 -54.400002 -12.05
238.08029 -46.056889 -12.400084
116.74162 63.893578 -5.2970471
221.9818 52.749313 -5.1594481
68.306274 30.014168 -12.198092
122.91714 -70.245956 -9.3600044
234.94405 51.872738 -5.2733769
134.3613 59.264759 2.212214
189.02098 49.982121 9.4940119
71.566719 -64.260284 -5.6395102
150.02361 63.079796 -5.6400151
210.84608 -54.401833 -12.049988
194.27267 61.358364 -9.3599997
204.3671 -55.207466 -5.9899998
241.92064 8.441515 12.741847
91.242615 56.296333 3.650063
108.38566 -60.841339 -3.255945
102.29482 -20.346386 4.73
203.44044 49.173908 12.384462
87.33551 -57.057358 -1.261034
102.24915 -19.951769 -10.876372
238.10001 -44.400002 -12.05
219.98323 5.5213242 17.407082
132.4926 70.693825 -9.0101299
67.945305 57.208897 -3.4611571
221.97542 53.87442 -5.2342029
75.095879 35.814865 -11.92011
104.27494 -20.019911 -12.4
60.505985 -42.873543 -5.6238108
192.6082 -48.68129 14.2423
188.54836 67.774368 -6.1599998
203.5 -36.489998 17.799999
186.07143 24.81732 8.8656654
63.646938 32.855412 -12.699999
62.58947 12.327169 -8.2691603
234.06844 -49.748806 -5.9524002
193.74649 56.145916 1.328589
101.22093 -19.350368 -10.874864
101.36876 -68.236061 -7.269968
67.212303 -61.156937 -12.400611
235.18834 -51.36953 -5.644783
231.04938 -19.855549 14.294072
70.763214 56.978077 -11.419824
61.517704 -1.770821 -5.9900122
232.74724 53.254559 -12.05
62.249989 -11.16149 -11.002191
237.0788 -48.920769 -5.9896741
228.12656 -52.749992 -5.9900861
238.10001 -34.829998 -5.6399999
69.602249 58.755375 -11.426728
85.988144 52.900002 3.373543
101.83376 21.499285 4.11023
61.100452 -42.161549 -5.1590681
242.35255 30.258425 14.459958
194.3739 62 -10.705
78.542816 32.075817 -11.619141
181.59337 44.399986 4.726265
229.16626 -47.170914 11.575118
231.51659 16.806908 12.307732
235.2473 48.028343 -12.04972
64.542503 54.18 -12.141315
99.021339 19.136154 -10.900901
100.51712 -68.533714 -5.124505
62.599998 7.5452561 -11.55837
133.80614 22.236572 1.930648
134.2 71.400002 -9.0100002
205.14035 -54.304146 -5.9903288
60.74955 -32.630642 -5.1589861
90.84996 -43.48999 2.7600009
136.56204 -21.325008 1.929569
69.599998 -64.400002 -5.71
61.075569 42.675568 -5.1999998
84.651512 57.482777 -2.945914
209.21858 -52.732281 -6.014688
60.029564 -2.899626 -5.1607761
182.69633 -63.336773 -5.9900031
204.3671 55.207466 -12.05
124.36863 68.392136 -7.269999
62.298286 43.414711 -5.620872
213.48996 7.7926502 18.562742
180.3185 47.700153 2.859791
91.761581 22.221035 3.7621181
210.89322 -54.676586 -5.1239681
102.72722 -20.729536 -10.884856
233.0486 52.611649 -12.4
62.299282 -32.287189 -5.6299672
104.8 60.838905 -3.238605
125.59974 -67.998108 -4.909512
61.608303 -9.7546101 -5.2000031
62.249958 -13.659583 -11.368629
235.65051 -45.57394 -5.1996188
101.18148 -21.640299 2.3117011
227.74535 41.237946 16.961061
192.10229 -61.920773 -5.1200008
69.659904 5.382586 2.235487
236.10001 -34.829456 -5.6399999
94.963203 64.5 -5.6999989
209.39388 53.064026 -12.05
195.29779 -64.526909 -5.1206951
102.55732 -19.425098 -10.880091
100.83542 -19.549109 4.73
102.67765 -69.847763 -5.145803
228.73869 52.19978 -5.6399999
61.886703 -12.149755 -7.220603
124.86253 68.199654 -5.1631608
196.84526 61.127399 -12.05
86.272125 49.899948 -2.360868
62.248161 -16.900854 -11.689952
123.38235 69.095291 -5.9677629
134.19496 -59.636627 1.798618
134.47911 -21.481182 3.3831961
139.19882 -63.107445 -5.9899688
80.312279 -68.375122 -5.1732578
134.48676 -21.478291 -10.879422
235.45613 43.729942 -5.0058808
78.369827 31.795578 -11.553822
67.782379 52.996078 -11.408825
210.88652 52.459675 -10.385957
62.248905 -10.898997 -6.0885458
182.30193 -62.350857 -5.1628261
98.599335 -64.349998 -5.1199999
100.43932 21.268381 2.3299999
230.82477 -52.314854 -5.9900169
195.14259 52.020721 11.253955
224.51842 46.293148 16.356581
236.43706 -50.686234 -5.2002168
229.59546 -19.96244 15.957371
92.731354 -59.325924 2.2310319
237.95 34.5 -5.1199999
191.60001 64 -9.3599997
125.07952 -70.33638 -7.2699881
61.180462 31.716373 -5.27
136.15591 -21.730324 -12.7
196.81157 -64.341415 -5.2585778
61.839066 -16.23193 -10.245481
193.2054 -63.081787 -5.989974
222.79785 48.464764 13.872853
80.670319 31.033098 -11.453063
78.76162 69.844589 -7.269999
62.250004 -14.202629 -11.198184
102.68011 -20.841434 1.5984581
135.5842 18.797039 -11.192887
67.842896 59.652294 -12.399075
78.144684 50.805862 -11.419999
61.958656 -12.385226 -7.205235
194.79376 62.000004 -9.0100002
78.691063 -69.700394 -5.1548939
182.98534 -38.763622 4.3531299
79.669792 70.45369 -7.6199999
191.12079 -68.300781 -9.360508
231.0246 -19.213491 13.825677
196.90955 61.204002 -5.9899998
192.30869 71.546295 -9.8529444
241.93542 8.3448076 15.461586
79.652908 43.319115 -3.639153
204.33202 49.074318 12.086252
182.60065 31.720917 4.2064428
59.024834 -15.187077 -10.272452
209.50563 52.435226 -5.6399999
235.77995 46.342651 -12.399821
193.84071 6.6609998 18.233025
92.518631 59.475609 2.052367
88.250748 -44.946617 1.113892
210.92436 -52.201862 -5.6399899
130.92506 -20.480099 -12.4
180.4922 -62.700565 -5.6308699
229.93858 41.726971 15.528205
61.25 55 -12.05
104.10754 60.103931 0.52029997
67.689697 56.426701 -11.118761
234.97855 48.16988 -5.640512
79.252136 58.123619 -11.919996
193.58717 62.49638 -7.27
71.599998 64.050003 -9.3599997
102.76788 -22.215487 -12.861247
183.62759 56.728699 3.6879129
101.24351 22.699944 3.5941851
196.39944 62.349998 -12.05
222.15585 52.499989 -5.6399622
194.27209 -58.75 -9.0100002
133.8313 23.418365 3.76
91.198387 -33.318352 2.9187739
205.2426 -54.216434 -5.6400418
149.71291 63.315067 -5.2408299
75.5 -10.778611 -1.72456
85.090813 59.064011 -4.040946
197 -71.849998 -9.3599997
100.83141 -22.810896 -12.69999
197.0381 -61.357216 -12.05
101.90853 -19.486265 -10.870874
98.599335 61.920002 -5.1999998
133.31277 -22.615437 -11.187221
63.27 -54.620003 -5.1999998
87.612434 61.619999 -5.1999998
209.81378 51.964588 -5.1658578
99.112076 18.87524 -12.499843
230.76686 16.105591 14.905666
71.315094 -10.584342 -1.531247
244.12645 27.887615 12.732516
60.25 -55.299999 -5.1199999
213.64442 -47.38092 15.302691
211.85934 -43.083267 17.671757
209.9332 -52.93148 -12.050151
179.80449 43.489975 2.6900001
102.08408 22.667055 -11.213751
66.817734 31.410833 -11.926866
237.95 34.500099 -5.200006
99.922661 -68.733772 -5.126441
242.8 -8.25 14.460001
104.62193 22.548212 3.8299999
79.615639 29.675697 -12.7
181.59821 -43.046898 3.02334
198.25777 -64.093369 -5.6999998
240.2 33.829998 -7.6750002
130.41489 -63.023041 -5.1200061
189.2 -70.400002 -7.6199999
132.83932 -19.231619 2.3299999
145.55902 -68.197716 -6.1599998
134.70491 19.002247 1.972771
126.2765 -59.070576 -9.0100098
83.565384 56.109356 -12.399999
236.12683 -44.444977 -5.200047
187.75954 24.103697 13.428718
213.77908 4.3031621 19.588036
136.98337 -19.389774 3.3423109
222.63422 53.292412 -5.4377928
167.09116 67.777191 -6.2710261
101.02396 17.558449 -12.177436
227.92462 52.750092 -5.9896441
61.998768 -16.574982 -6.7395639
78.652008 58.746883 -11.430391
133.77876 -19.35025 -10.780001
61.894302 -12.573049 -10.580722
238.48737 -34.561245 -5.3986578
169.02155 59.673386 1.860321
133.31094 -21.630003 3.254678
66.860268 56.564213 -11.4203
80.118904 -70.833817 -6.1172438
135.28033 17.894079 -12.7
62.76366 56.578217 -5.6399989
138.15033 -57.50724 3.5626359
90.104881 19.505054 3.085464
235.79507 -45.492195 -12.051825
62.004341 -16.849747 -6.1175809
235.20615 -43.729942 -4.8203902
78.235931 50.569363 -9.2619514
242.07919 -8.8853264 15.499812
133.27296 20.912527 -11.179074
94.199997 -64.5 -5.6999998
133.0636 22.54117 -11.18792
211.71457 -32.301514 17.65983
91.015869 38.103596 2.8858471
100.49581 20.10104 4.7283859
241.37762 29.46739 15.498497
129.03102 63.900059 -5.266295
179.84543 -33.624916 2.733037
238.34047 -34.740986 -5.1213121
212.07623 43.491695 17.608963
89.707123 10.257684 3.829999
228.29718 54.764942 -5.2445769
133.43777 -21.515406 4.312573
223.55803 -53.718784 -5.6656981
71.946533 53.531559 -12.52027
137.17426 19.784809 1.277874
179.84543 -33.990002 2.6900001
131.51978 -21.591368 -11.0261
87.413429 58.657883 -2.3851831
238.10001 -34.829998 -12.4
61.85183 -11.300056 -7.7547321
196.98268 71.84967 -9.3667545
212.08054 -54.400002 -5.9899998
67.223663 -64.031456 -5.2002192
232.35756 -53.479691 -5.9903159
205.17485 -54.987995 -5.990119
244.10442 -9.8652706 15.447269
241.92047 -8.4688253 14.460001
206.9772 53.178341 -12.4
168.99344 -69.563499 -5.9828758
133.99176 18.701952 -10.879895
191.60068 -64.45607 -5.2439342
63.763714 -62.746822 -5.120616
242.40359 10.737372 12.751067
79.375214 -17.3144 -3.2723179
90.549248 -17.812284 3.3171971
133.78168 18.782816 3.3802471
101.03757 -21.092989 4.8436379
124.67359 67.768326 -6.1304412
201.53072 7.9339628 18.833599
241.94341 -28.017345 12.73454
101.22085 21.638491 -10.88
135.7 70.800003 -7.6199999
101.59271 -21.798929 -10.88
202.73337 7.9592252 19.080051
211.48051 52.200138 -5.9900742
66.546593 47.084385 -11.419989
238.10001 34.829395 -5.6399999
168.21126 68.50148 -7.2700238
62.050438 -20.59137 -5.1595821
100.17603 70.313126 -6.1599998
65.287163 55.463081 -5.000567
232.97009 50.746826 -5.9899998
101.87982 -62.962967 -5.9897981
196.90955 -61.204002 -5.9899998
124.9 70.800003 -6.5100002
108.81872 -59.538609 1.82989
101.96927 -67.805725 -7.2772808
196.90955 -61.203995 -5.6400151
102.58828 20.749893 4.0319748
80.792351 41.027664 -11.920048
100.17139 -19.578804 2.3299999
228.41484 -24.841047 16.408567
204.59207 55.475578 -5.9899998
134.11154 17.4851 -12.7
181.85858 46.878342 4.6303139
135.24562 -19.66674 1.27868
200.15648 -3.2040851 18.879974
192.77415 -46.633427 15.933048
235.62711 -36.400002 -4.5
181.56137 -12.522482 3.924592
196.51804 -40.731579 18.129015
209.40598 6.582581 19.742899
67 71.849998 -9.3599997
96.028069 -62.103767 -5.292212
228.61465 47.95892 10.579637
61.45002 -16.580915 -12.699997
62.599998 -16.611622 -8.0749998
212.08061 52.200001 -5.6399078
205.32071 -54.48513 -5.9899998
235.0585 -47.731644 -12.4
81.631935 -12.761487 -2.866699
196.15034 6.6916032 18.880001
207.70486 -55.360214 -5.6399999
188.04935 41.847347 13.498247
232.20798 -51.686695 -12.04989
68.122513 53.912186 -10.39558
237.34711 49.266529 -5.1205258
132.42357 -19.994198 -10.88
80.760498 38.368748 -11.120295
74 -64.849998 -5.4099998
59.052395 -11.497204 -10.200995
211.57146 -24.817848 17.430422
60.555294 0.176394 -5.2000232
231.91075 42.375679 11.457391
235.89999 -44.400002 -5.9899998
211.74141 -54.300434 -5.6380401
98.339706 64.457932 -5.0415039
62.000336 -11.196494 -6.5596519
90.965378 43.035332 2.757277
228.10001 54.400002 -12.05
65.218071 56.286732 -11.421312
189.60191 -56.051178 3.354037
89.256889 -52.900002 6.1818571
213.601 32.320347 17.230122
194.56779 -44.182468 17.425716
61.840004 -15.532051 -12.4
235.41159 -43.729942 -5.059895
237.86246 17.119511 -5.6399999
228.10001 -52.200001 -5.9899998
179.84544 32.087353 3.580312
229.65085 17.573961 15.652888
211.09506 28.053564 17.66
210.38982 -52.102821 -12.399939
100.53677 -21.361475 2.07232
171.34933 56.450397 3.7386739
238.10001 33.829998 -12.05
101.48612 18.89736 4.011148
242.64307 -26.96236 14.460022
123.38001 -68.850342 -5.1656909
229.45818 39.372307 16.12014
237.44577 5.8077478 -5.6399989
59.132759 -12.146724 -7.2892971
220.01498 -4.5413451 17.48345
69.182922 31.959227 -11.316125
92.475281 -49.90292 3.8299999
66.332779 -9.6354895 -3.5493071
90.149261 -19.274944 3.1766369
184.83728 -42.186573 6.5443592
195.96506 -49.0863 15.149446
78.330078 -24.804834 -4.33951
103.73383 -19.632462 -11.184274
64.742424 -7.0079751 -4.6765962
194.27209 -58.799999 -9.3599997
197.53717 -64.199959 -5.1999998
131.69341 19.632576 1.34149
69.5 9.9507532 5.3465281
100.90511 -70.240952 -7.27
188.01205 -69.083031 -7.6199851
61.931561 -16.703377 -9.2356567
183.09714 -44.400002 3.958606
98.672775 -21.90237 -12.700005
236.20721 -38.641899 -5.2405801
67.045433 49.063328 -11.419058
61.291313 -32.030678 -5.639935
93.245003 15.593565 3.76
139.1375 -70.438889 -9.010253
212.08054 52.400002 -12.05
59.032852 -16.271568 -7.6149702
195.80275 -1.373062 18.87925
99.409859 21.987486 -11.82377
78.186684 10.697483 -1.825573
97.216736 -63.670471 -5.2024999
192.82829 40.964027 17.529627
61.863987 -11.622121 -9.9419746
157.16595 60.130451 -9.0100298
197.99352 -64.014839 -5.1199999
237.75063 -17.124189 -5.1588082
196.99094 71.550804 -9.3637676
99.982704 -18.001036 -10.91676
65 67.050003 -9.3599997
235.20615 43.729942 -4.8203902
228.4576 53.475166 -5.9869399
209.9528 -51.951286 -5.0667572
93.207253 -14.758493 4.1058388
204.3671 -55.207466 -12.05
206.10172 8.093648 19.078215
92.620445 -38.891392 3.4213841
167.5 71.400002 -9.3599997
209.78654 54.6105 -5.9899421
80.13179 39.419922 -11.469222
198.31786 -47.73753 16.200481
79.918793 38.087345 -11.92169
242.33473 -11.238501 15.51602
90.865211 37.667091 2.7000189
101.60557 -21.6406 2.119169
204.73981 -49.033051 -5.9898448
231.89059 -53.777348 -12.049689
60.950001 54 -5.6399999
102.3145 20.296513 4.7342639
212.64703 -6.479465 20.069958
67 -71.849998 -9.3599997
236.10001 -35.829998 -12.05
199.30579 21.432169 17.800112
102.78849 -20.070847 -10.88
93.228523 -12.914416 4.0349188
64.249161 55.776798 -12.393786
94.901649 -61.920555 -5.0400009
67.242218 58.849499 -5.199553
181.43996 15.333872 3.8254969
194.89748 67.407188 -9.4962006
241.25867 9.8924065 15.515741
206.61388 47.945694 14.630001
92.220345 -60.105164 0.51433599
209.7061 52.636738 -6.007175
98.764656 20.607149 -12.596138
102.82975 18.00724 -11.275569
209.82864 54.624516 -12.400074
60.829498 31.194782 -5.6837492
65.582512 47.36726 -11.920553
72.549515 35.503929 -11.920519
133.9021 17.735872 3.615046
207.21703 -55.450558 -12.399964
242.6132 -8.2283049 15.515951
67 71.900002 -6.1599998
237.34885 -48.918022 -5.1199932
182.88052 -51.379799 3.76
136.16861 -20.278887 3.415575
68.324959 59.042049 -12.298322
228.8317 -27.194834 16.107361
108.91676 -60.185772 0.46156299
103.89614 -20.700563 3.357825
186.13206 -57.983677 2.9732261
237.36055 47.998543 -5.604897
235.67964 8.5 -4.9756818
236.10001 -35.829998 -5.6399999
180.3185 47.33881 2.8011191
166.13016 62.235458 -5.6404948
63.708397 56.447918 -5.120048
238 5.112185 -5.27
201.14738 11.866022 18.489029
89.983749 -43.043919 2.5767081
235.8 -33.829998 -12.05
234.18356 -49.618572 -12.051048
189.91258 67.863037 -7.2423558
128.89999 62.549999 -5.9899998
101.33566 21.721889 3.39045
182.68422 32.117249 4.3261118
196.20331 -71.741234 -12.391056
196.53595 -61.907806 -5.1999989
63.27 0.899333 -5.1199999
235.71957 -46.88818 -12.050344
78.359116 -70.043282 -7.2831202
102.07358 -19.02269 2.3299999
133.29799 -19.486713 -10.880323
212.76826 54.770691 -5.2333221
71.599998 -62 -12.4
71.599998 -63.650002 -7.27
235.26384 52.138706 -5.2025189
195.78534 -70.006577 -9.862546
133.33916 19.467274 4.710331
165.0957 52.900002 6.9000001
236.45 -34.829998 -12.05
231.16147 -51.791035 -12.05
63.773338 33.073696 -12.399603
231.83635 9.9916506 12.232362
160.84039 63.138981 -5.6399922
232.6302 -51.012562 -12.050055
134.00798 -21.639668 -10.87991
87.921982 -19.274944 0.54010201
168.39307 -70.01886 -7.27
66.013496 47.653351 -4.5639901
189.30482 -10.416412 15.807628
66.235947 -4.6203051 -0.183799
235.32068 -51.399906 -12.049767
133.97356 -21.799675 -10.88
63.623989 -59.415215 -5.371336
145.30913 70.241386 -6.5100012
184.39372 33.021351 5.8595018
93.342972 59.86499 1.257931
233.71571 -49.54248 -5.1994338
185.43318 10.451624 7.9480262
189.97845 -70.688461 -7.2765288
195.72479 -51.036335 16.224966
160.57202 -18.645231 3.530056
229.86154 27.146362 15.322726
67.089378 -3.622663 0.865538
237.75708 6.16539 -5.7170248
241.24271 -28.88386 12.759615
229.55771 -52.279907 -5.939435
62.273281 -55.540939 -5.7258582
61.342056 12.892933 -5.264183
193.7375 -71.289665 -10.091495
229.1899 -52.678566 -5.9899998
102.61193 70.28495 -7.2821698
61.450001 55 -12.4
185.28403 -25 7.77598
130.94946 18.299101 -12.959455
205.91792 -54.994251 -5.6880641
101.93987 -22.827627 -11.24367
61.959755 -15.463714 -10.582017
60.749889 21.619045 -5.1585178
195.43291 69.818611 -9.4812202
136.97241 -22.271423 3.7909119
211.26334 -54.400215 -12.400001
138.69829 58.421284 2.9870851
191.99994 -64.080704 -5.1198049
231.27863 -32.442818 13.839956
191.60001 64.050003 -9.3599997
230.66655 -9.955595 14.926526
206.34303 46.304325 16.348309
103.85987 -20.991985 -10.925597
97.118362 63.643829 -5.198597
241.30994 9.4700785 12.750079
193.7 -63.450001 -7.27
101.90276 -20.141445 -11.179879
80.615189 -62.375179 -5.6870561
107.87806 -56.099735 3.7599919
135.95744 -22.877998 -12.984782
80.040031 63.497547 -5.6484671
74.669937 37.69466 -12.219995
205.04817 -55.093159 -12.050009
232.99309 -50.7267 -6.034946
197 -64 -9.3599997
136.23935 17.906483 -12.97463
188.02008 42.043556 13.506666
236.69292 -16.305731 -5.6399341
62.209599 -10.410904 -6.887898
183.53053 59.922562 1.141036
201.17065 -58.717503 -5.2058611
128.89999 -62.549999 -7.27
88.527603 -18.432062 1.589767
237.15062 16.005812 -5.64009
65.70369 49.382187 -11.988141
227.04547 -16.369215 17.127584
101.23052 -21.799864 -10.88
90.219551 37.926079 2.695118
196.84735 61.129887 -12.4
238.09737 -45.707897 -5.640069
194.05052 71.054787 -10.054878
230.88191 45.52383 11.095533
183.48566 48.39484 5.9133291
183.25992 43.129307 3.9748549
82.329109 13.881066 -3.0005491
206.27676 -48.77739 12.787769
236.72665 26.794315 -5.621264
194.15279 -41.489811 19.775324
91.125893 41.458782 3.4852331
243.93323 28.96493 12.750006
161.81473 -63.038399 -5.639987
146.56612 70.364746 -7.270031
242.66071 -30.30509 15.544116
102.07358 21.47731 2.3299999
63.470375 -61.674976 -5.2422409
207.54041 -53.287743 -5.6426611
75.5 -11.41736 -2.5025821
244.10161 28.62973 15.440713
132.79007 -21.219563 -10.88
147.61711 68.088898 -7.2699399
218.48569 -9.5944309 17.351065
236.56189 -11.021154 -5.6403551
212.08054 54.400002 -5.9899998
180.3185 48.892651 3.5803111
102.58479 19.486694 -10.880243
149.91428 63.652023 -5.74858
169.92809 -59.787788 -10.705
188.25233 -68.713356 -7.27
87.258682 -20.365219 -1.282312
145.45616 -69.372948 -5.1242352
93.228531 14.935832 3.9715559
222.94044 -43.927742 17.229904
227.89413 -54.399658 -5.6398182
149.75488 62.530235 -5.2954278
132.4985 22.360445 -12.87463
181.23244 60.149506 0.264532
128.32008 63.655922 -5.7456121
212.6257 4.382494 20.069948
62.055748 -10.902669 -11.709854
231.35083 5.8414969 14.266403
79.099609 29.838125 -12.315723
231.37399 -53.890381 -5.6393218
188.34766 -70.623932 -7.2650571
79.186874 38.93 -11.92
193.2312 63.133694 -5.6400008
101.19725 -21.654985 -10.879999
212.08054 54.400002 -5.6399999
133.04944 -20.744457 4.7370901
211.42326 51.51413 -4.4939198
191.17445 -41.5168 17.160191
133.84946 -22.188646 1.953837
238.10001 -33.829998 -12.4
236.61166 49.784813 -12.050133
187.84239 11.509148 13.623253
78.750313 -70.559769 -5.6758161
133.7569 19.336046 4.7692261
88.042587 19.21524 0.66610497
134.04517 59.894722 1.15203
62.5998 -17.866873 -11.072783
211.65053 -16.111965 17.658808
238.42072 -45.442734 -5.126636
242.28181 -8.2875872 12.759065
228.362 -52.19997 -5.6400661
60.500004 42.611851 -5.639998
244.29007 -29.029922 15.500089
203.19443 41.6157 17.732561
133.04944 19.755529 4.737092
179.84544 -31.590145 3.7147269
60.087364 55.299999 -5.187366
101.22085 -18.861509 -10.88
61.849998 43 -5.9899998
102 -44.400002 2.8299999
193.123 27.879381 17.655346
102.29309 -70.018845 -7.27
215 -44.158009 17.486471
197.0381 -61.357216 -5.6399999
133.99261 -21.799528 1.62
124.17334 70.630646 -6.5100002
69.324867 32.076561 -11.605248
227.37695 -24.133356 17.076393
84.894646 -58.994553 -3.951859
237.95 -34.5 -5.1199999
71.665359 -10.061313 -0.28367099
168.76126 -59.707535 -10.705007
228.10001 52.200001 -5.9899998
64.588287 -61.50061 -12.699999
135.22397 20.227671 0.83361799
69.5 37.829998 -4.46
84.777328 2.020092 3.790405
231.96475 -5.7087178 13.329612
124.22384 -70.123802 -7.2700028
187.97668 27.173315 13.352868
204.3671 55.207466 -5.9899998
191.60068 -64.512634 -5.187366
86.68074 -56.9627 -2.1441419
241.83366 -29.249228 12.755171
190.90814 45.85865 15.104125
65.92186 54.493496 -11.420161
167.37148 -70.87439 -7.2220788
194.27209 58.75 -9.0100002
78.477386 33.578671 -11.920033
229.75771 -16.178717 15.872068
192.92862 -52.007786 10.573458
207.41931 53.342285 -12.05
67 -71.900002 -9.3599997
63.200001 -63.650002 -6.1599998
65.216698 -48.176598 -5.041048
208.54349 52.933125 -12.05
222.73317 -53.526844 -5.6399269
59.012428 -12.351928 -7.4989309
91.018982 -21.821863 3.600528
100.03535 20.912191 2.7378681
194.28946 -61.840195 -12.400001
65.240921 47.674114 -11.91948
78.677933 -16.7218 -3.3217549
100.48318 -20.339512 -10.79033
88.729523 61.531929 -5.2698221
234.37625 16.651136 -0.46777099
69.244087 10.65761 -2.8128109
234.18729 49.614754 -5.9911842
62.25 7.4951 -11.641548
160.18297 -18.228712 3.7909019
208.08479 55.850319 -5.2024212
184.27347 -45.114792 4.9152012
82.09948 33.634754 -11.919907
236.10001 34.830269 -5.640007
130.96602 20.5916 -12.700002
71.682091 10.123682 -0.280608
196.99881 -64.003586 -12.10218
195.40544 -69.272011 -9.433567
134.58981 -20.681484 -10.780001
60.400002 -55 -5.9899998
69.5 10.887697 4.772368
205.91637 -48.702553 12.850493
236.10001 44.400002 -5.9899998
191.60001 -64.050003 -12.4
136.97836 -18.228605 3.7909069
87.063019 -19.251692 -1.716295
235.15584 -51.462784 -5.9895148
98.308083 -61.920025 -5.040019
134.05334 -21.113554 -10.877339
103.56496 22.095219 -12.699999
102.99051 -23.217346 -12.917831
232.35741 51.113815 -5.6438608
104.50238 21.853071 3.5301051
84.596321 -45.601898 -3.339823
196.39944 -62.349998 -10.705
242.23802 11.266315 15.617118
133.37975 -19.027967 3.976011
204.77943 54.601822 -5.9899998
204.75613 54.489807 -12.4
100.12929 -21.480217 -10.825238
171.82317 -61.086136 -9.0099955
100.74548 18.872702 2.5134981
79.047768 30.113298 -12.008928
71.002419 -57.379776 -2.9340229
65.956009 49.184288 -11.618344
187.18965 -59.116051 1.195464
60.5 32.387814 -5.6399999
91.962738 41.611137 3.646126
134.1915 59.618664 1.693435
136.94615 68.367691 -6.1599998
211.466 54.552414 -5.1200318
90.849831 33.989998 2.6900001
226.19812 -44.212528 16.975124
68.152733 59.273991 -12.078679
104.6149 -22.548252 3.8299999
136.32021 19.686998 -10.928252
66.244255 40.736404 -11.432298
196.27206 -62 -12.4
238.39423 44.734276 -5.2754712
92.620445 -48.426659 3.360919
71.599998 -64.050003 -12.4
235.8 35.829998 -12.05
180.31851 -48.351311 5.1240382
63.885601 60.976151 -12.39958
194.90724 -52.069782 11.131324
171.73608 -63.834782 -5.6812339
182.76221 48.788013 3.9618449
182.23361 -63.64875 -5.6947541
230.17577 -51.399536 -5.069396
168.69893 69.345711 -7.6199942
193.18024 27.730867 17.593582
78.985939 30.536499 -11.590852
69.622345 55.686298 -11.268794
61.516449 43.126457 -5.1999989
196.49817 64.501953 -9.8718176
62.248909 -11.955503 -7.205348
61.863918 -16.272943 -7.9268532
182.38152 -61.350994 -5.0011382
144.49469 68.68364 -9.3600035
179.84543 39.877602 3.783648
137.09785 -20.496605 3.0022731
210.72806 52.828773 -5.9899998
103.74194 -18.973166 -11.008098
62.250336 -2.522018 -6.7338881
61.808907 -57.468788 -12.4
78.769485 -8.2327995 1.602981
134.36458 -20.950891 -10.780001
240.55 -33.829998 -2.4000001
75.67057 63.37532 -5.2396131
184.76933 -61.012726 -4.8946338
134.50374 56.689362 3.7768519
215.83907 47.342617 15.246443
81.048317 -11.274357 -1.697682
237.34935 -3.7305009 -5.2543998
207.5403 -56.304844 -5.701211
136.29996 21.009491 -10.881248
232.37512 53.424175 -5.671433
66.861229 4.661046 0.694969
103.14602 17.598927 -12.981592
